0.0000000000 0.0000000000 0.0000000000
-0.0805788028 0.9782666027 0.1910536852
-0.3796798267 0.0387843008 0.0299435885
-0.8047405284 0.8189264386 0.4883368973
-1.2062161914 1.6226696538 0.9275603771
-1.6668760907 2.3543273535 1.4296588796
-2.0869975398 3.1202680187 1.9157999664
-2.5551823015 3.8442591905 2.4224405403
-3.0206108903 4.5725864670 2.9251850107
-3.4616218184 5.3379314478 3.3950995194
-3.9005717262 6.0996367676 3.8725614778
-4.3759863889 6.8759192705 4.2839229991
-4.8283558783 7.6186709104 4.7770613094
-5.3355709765 8.2993185162 5.3022393645
-5.7721982517 9.0838989760 5.7466112576
-6.2025947063 9.8466738798 6.2300278815
-6.6927102372 10.5541734881 6.7336049172
-6.7092391482 11.5093168362 7.1079682649
-7.1990171726 12.1738306656 7.6837889165
-7.6873640131 12.8684639163 8.2185054110
-8.2028000835 13.5328262872 8.7748865386
-8.6418631635 14.2929930443 9.2513447623
-9.1532053003 14.9722390622 9.7860332445
-9.5972698833 15.7362560865 10.2469300237
-10.0354602853 16.4960599936 10.7203833052
-10.4499331283 17.2365397384 11.2502859835
-10.9612575156 17.9095243498 11.7764977566
-11.4926122631 18.5026509550 12.4147857365
-11.9310523957 19.2547818774 12.8958038934
-12.4827219132 19.8928301562 13.4511236080
-12.9709914002 20.5978478643 13.9669144394
-13.4462929317 21.3723219500 14.3859594991
-13.8374464339 22.2069313901 14.7962353110
-14.2939318719 22.9828224528 15.2349416622
-14.7172307397 23.7593299878 15.7044076863
-15.2271498042 24.4604207126 16.1990539096
-15.6660518465 25.2447012945 16.6404885811
-16.1078353181 26.0036524633 17.1005064278
-16.4054538824 26.9486122156 17.4084863279
-16.9317998030 27.6169373557 17.9456940435
-17.4006539584 28.3701082146 18.4072738858
-17.9013485931 29.0118101327 19.0076087545
-18.3898621460 29.6760333254 19.5828965271
-18.7428432616 30.5410834722 19.9830759564
-19.3093801712 31.0766235732 20.6837355786
-19.7873120997 31.8358828018 21.1285243874
-20.1856570450 32.6262810304 21.6008725508
-20.6681512512 33.3804173603 22.0438871862
-21.1376283751 34.0675084831 22.6051618999
-21.5544456899 34.8284332801 23.0949364770
-22.0069524330 35.5674748167 23.5936586800
-22.3806971906 36.3375831035 24.1189891735
-22.9423981308 36.9829981676 24.6572999396
-23.3702053630 37.7726802267 25.1033018359
-23.7995072568 38.5583651642 25.5324061023
-24.2838510852 39.2966270566 26.0026946556
-24.6893217892 40.1534034211 26.3665975309
-25.0963808785 40.8882048006 26.9146583172
-25.4845428187 41.7486133616 27.2698929987
-26.0696697750 42.2347974020 28.0182049537
-26.5621905438 42.9552650085 28.5068465405
-27.0642050132 43.6464328222 29.0278661861
-27.5830985931 44.4399157870 29.3630876837
-27.9606335621 45.3095958512 29.7298959285
-28.4818855592 46.0637845193 30.1355164615
-28.7825524766 46.9631119732 30.5311718900
-29.2225053556 47.7314715146 30.9968605668
-29.9086426818 48.4163738310 31.2683499339
-29.8248870226 49.0902423495 32.2835528838
-30.4292777155 49.6592405160 32.8998514399
-30.8548279678 50.3856766151 33.4426449298
-31.2955657460 51.1714142582 33.8781070200
-31.7197666503 51.9594698818 34.2854645928
-32.0782276104 52.7683452648 34.7645283483
-32.5312272434 53.5170592005 35.1890180715
-32.9617325499 54.2494958339 35.7173025215
-33.5738248346 54.8374390825 36.2975746848
-33.6363804929 56.4139633170 34.8739621784
-34.2498562217 56.9854381277 35.4842152412
-34.7717058715 57.6948647746 35.9385989970
-35.4371506658 58.2428531264 36.5344151634
-35.7220337011 59.1130931497 36.9579841924
-35.9678916354 60.1613274480 36.9236066193
-36.4000344223 60.9815765412 37.3057352477
-36.8557399570 61.7469170718 37.7524870182
-37.2048914963 62.5644192539 38.1966137040
-37.4979876416 63.3739443416 38.6044833583
-38.0504223999 63.9923124485 39.1916952044
-37.7452854453 65.2654969926 39.1185606771
-38.2858247567 65.9961818976 39.5139819627
-38.7385515845 66.8646372286 39.5905041865
-39.0544161549 67.9888570252 39.1116359095
-39.5132226465 68.7207669448 37.5116495893
-40.1014032510 69.4695972442 37.7807020514
-40.8015741150 68.6423122556 36.8512593773
-41.3757291593 69.3914265764 37.1092365400
-41.8973847295 70.0925352462 37.5901578802
-42.4436081732 70.7541589688 38.1260625304
-43.0828918025 71.5475582535 38.1432879404
-43.6297657911 72.7032278854 37.0552203845
-44.1618201740 73.4221366268 37.4616970392
-44.9269023986 73.9675126016 37.9387824317
-45.4109964893 74.6381838924 38.5248739303
-46.1624302070 75.2087824550 38.9561924064
-46.5960868548 75.9992080000 39.3802144791
-47.1388270032 76.7128129784 39.8198151277
-47.7283283960 77.3609636631 40.3115849676
-48.2219305771 78.0421254537 40.8574907818
-48.8823121711 78.6769484883 41.3027198460
-49.2845417627 79.5066933283 41.6875780290
-49.6037320675 80.3755271927 42.0512486263
-50.0546751876 81.1582666038 42.4587551827
-50.8549760347 81.5623088181 43.1799647634
-51.5445548099 82.1364879841 43.7109890626
-52.0749784761 82.7597478698 44.3420880874
-52.6850515115 83.4153433803 44.8133019064
-52.9877383927 84.3160979994 45.1904179088
-53.5293739086 85.0339991164 45.6335020386
-54.2192950424 85.5629385287 46.2434765436
-54.4356457596 86.4419018815 46.7217037944
-55.0924062122 86.8806564771 47.5297616360
-55.4802414546 87.6874309533 47.9260392446
-56.0497929477 88.3601160356 48.4079704792
-56.6348718927 88.9923215704 48.9477003528
-56.6726584043 90.1155641707 49.1000133886
-57.4454269607 90.6800191564 49.3888309431
-57.6385010861 91.5361396007 49.8749894306
-58.5386280876 92.0043399005 50.2505013219
-59.0222348625 92.7715426151 50.6596019877
-59.3968253703 93.5917120757 51.0953458177
-59.9721933314 94.1419795615 51.6333463166
-60.6285871686 93.6737113358 50.1154292332
-61.2824109496 94.1519292898 50.8609767580
-62.4991575233 95.1559588229 49.0619607155
-62.5910056046 94.9913312208 47.7057654762
-63.5062783357 95.8993287406 46.7222779284
-63.9097877215 96.7338989657 47.0904589157
-64.4237821949 97.3969788995 47.6498518734
-65.3373842033 97.3814121793 45.3581906104
-65.9295223976 97.3959372871 43.3050748815
-66.5007315129 98.0200832186 43.8511231781
-66.8996923875 98.8335329261 44.2600249160
-67.2429572842 99.6230816907 44.8223256618
-67.7961268302 100.3120931814 45.1928018537
-68.2580049657 100.9722677196 45.8403276412
-68.4721363226 101.8880429494 46.0418230276
-68.9556506754 102.6384086684 46.3953033079
-69.4726294295 103.7543280675 45.2342936135
-69.8777292785 104.5441959755 45.6831558707
-70.5578914514 105.1731827375 46.0770429307
-70.9692828926 105.9325394407 46.6033721388
-71.6998884409 106.4168402172 47.2585942366
-72.3088195789 107.0267695841 47.8116690996
-72.8563493084 107.7437048814 48.1642304873
-73.4768850434 108.4081958485 48.5498774431
-73.8302923821 109.2395485551 48.9137844884
-74.2894287115 109.8661380154 49.6548275765
-74.7906761555 110.5312359830 50.2339985563
-75.0499257039 111.3986679746 50.7355511901
-75.5318012846 112.0188318437 51.4477092950
-75.3512949920 113.4694072208 51.2476614274
-76.1320306694 113.8587897744 52.0284869692
-75.9813620279 115.1098680791 52.2745649677
-76.8122416381 115.4549193458 53.0826973022
-76.8460171633 116.5518385198 53.3727208504
